# .PCD v0.7 - Point Cloud Data file format
VERSION 0.7
FIELDS x y z rgba
SIZE 4 4 4 4
TYPE F F F U
COUNT 1 1 1 1
WIDTH 1125
HEIGHT 1
VIEWPOINT 0 0 0 1 0 0 0
POINTS 1125
DATA ascii
-126.95166 -70.941368 4.1800232 4294967295
118.5047 -104.51388 20.203445 4294967295
113.84283 -121.97775 20.203445 4294967295
98.370377 -117.83321 21.49379 4294967295
101.56007 -98.55294 21.49379 4294967295
104.62378 -155.36958 -4.1800232 4294967295
90.837723 -154.38425 -4.446991 4294967295
90.837723 -154.38425 4.446991 4294967295
104.62378 -155.36958 4.1800232 4294967295
118.5047 -104.51388 -20.203445 4294967295
101.56007 -98.55294 -21.49379 4294967295
98.370377 -117.83321 -21.49379 4294967295
113.84283 -121.97775 -20.203445 4294967295
126.95166 -70.941368 4.1800232 4294967295
105.23225 -61.098595 4.446991 4294967295
105.23225 -61.098595 -4.446991 4294967295
126.95166 -70.941368 -4.1800232 4294967295
156.44881 -171.90128 4.1132813 4294967295
156.44881 -171.90128 -4.1132813 4294967295
143.84256 -165.74797 -4.1132813 4294967295
143.84256 -165.74797 4.1132813 4294967295
181.3333 -146.98428 -19.880859 4294967295
166.28099 -133.65324 -19.880859 4294967295
158.73613 -144.73479 -19.880859 4294967295
173.54308 -155.91544 -19.880859 4294967295
196.26456 -129.86624 4.1132813 4294967295
180.74197 -112.41363 4.1132813 4294967295
180.74197 -112.41363 -4.1132813 4294967295
196.26456 -129.86624 -4.1132813 4294967295
173.54308 -155.91544 19.880859 4294967295
158.73613 -144.73479 19.880859 4294967295
166.28099 -133.65324 19.880859 4294967295
181.3333 -146.98428 19.880859 4294967295
-156.44881 -171.90128 -4.1132813 4294967295
-156.44881 -171.90128 4.1132813 4294967295
-143.84256 -165.74797 4.1132813 4294967295
-143.84256 -165.74797 -4.1132813 4294967295
-181.3333 -146.98428 19.880859 4294967295
-166.28099 -133.65324 19.880859 4294967295
-158.73613 -144.73479 19.880859 4294967295
-173.54308 -155.91544 19.880859 4294967295
-196.26456 -129.86624 -4.1132813 4294967295
-180.74197 -112.41363 -4.1132813 4294967295
-180.74197 -112.41363 4.1132813 4294967295
-196.26456 -129.86624 4.1132813 4294967295
-173.54308 -155.91544 -19.880859 4294967295
-158.73613 -144.73479 -19.880859 4294967295
-166.28099 -133.65324 -19.880859 4294967295
-181.3333 -146.98428 -19.880859 4294967295
-4.1132813 -171.90128 156.44881 4294967295
4.1132813 -171.90128 156.44881 4294967295
4.1132813 -165.74797 143.84256 4294967295
-4.1132813 -165.74797 143.84256 4294967295
19.880859 -146.98428 181.3333 4294967295
19.880859 -133.65324 166.28099 4294967295
19.880859 -144.73479 158.73613 4294967295
19.880859 -155.91544 173.54308 4294967295
-4.1132813 -129.86624 196.26456 4294967295
-4.1132813 -112.41363 180.74197 4294967295
4.1132813 -112.41363 180.74197 4294967295
4.1132813 -129.86624 196.26456 4294967295
-19.880859 -155.91544 173.54308 4294967295
-19.880859 -144.73479 158.73613 4294967295
-19.880859 -133.65324 166.28099 4294967295
-19.880859 -146.98428 181.3333 4294967295
4.1132813 -171.90128 -156.44881 4294967295
-4.1132813 -171.90128 -156.44881 4294967295
-4.1132813 -165.74797 -143.84256 4294967295
4.1132813 -165.74797 -143.84256 4294967295
-19.880859 -146.98428 -181.3333 4294967295
-19.880859 -133.65324 -166.28099 4294967295
-19.880859 -144.73479 -158.73613 4294967295
-19.880859 -155.91544 -173.54308 4294967295
4.1132813 -129.86624 -196.26456 4294967295
4.1132813 -112.41363 -180.74197 4294967295
-4.1132813 -112.41363 -180.74197 4294967295
-4.1132813 -129.86624 -196.26456 4294967295
19.880859 -155.91544 -173.54308 4294967295
19.880859 -144.73479 -158.73613 4294967295
19.880859 -133.65324 -166.28099 4294967295
19.880859 -146.98428 -181.3333 4294967295
-19.919422 -213.61482 -267.37674 4294967295
-20.073669 -208.64503 -275.83191 4294967295
-19.919422 -193.33412 -247.54182 4294967295
-19.888573 -198.4648 -239.56953 4294967295
4.2675295 -200.58801 -293.19464 4294967295
4.1441307 -183.79401 -263.05344 4294967295
-4.1441307 -183.79401 -263.05344 4294967295
-4.2675295 -200.58801 -293.19464 4294967295
19.919422 -213.61482 -267.37674 4294967295
19.888573 -198.4648 -239.56953 4294967295
19.919422 -193.33412 -247.54182 4294967295
20.073669 -208.64503 -275.83191 4294967295
-4.1132813 -223.70981 -253.90739 4294967295
-4.1132813 -207.32559 -222.76012 4294967295
4.1132813 -207.32559 -222.76012 4294967295
4.1132813 -223.70981 -253.90739 4294967295
19.919422 -213.61482 267.37674 4294967295
20.073669 -208.64503 275.83191 4294967295
19.919422 -193.33412 247.54182 4294967295
19.888573 -198.4648 239.56953 4294967295
-4.2675295 -200.58801 293.19464 4294967295
-4.1441307 -183.79401 263.05344 4294967295
4.1441307 -183.79401 263.05344 4294967295
4.2675295 -200.58801 293.19464 4294967295
-19.919422 -213.61482 267.37674 4294967295
-19.888573 -198.4648 239.56953 4294967295
-19.919422 -193.33412 247.54182 4294967295
-20.073669 -208.64503 275.83191 4294967295
4.1132813 -223.70981 253.90739 4294967295
4.1132813 -207.32559 222.76012 4294967295
-4.1132813 -207.32559 222.76012 4294967295
-4.1132813 -223.70981 253.90739 4294967295
-267.37674 -213.61482 19.919422 4294967295
-275.83191 -208.64503 20.073669 4294967295
-247.54182 -193.33412 19.919422 4294967295
-239.56953 -198.4648 19.888573 4294967295
-293.19464 -200.58801 -4.2675295 4294967295
-263.05344 -183.79401 -4.1441307 4294967295
-263.05344 -183.79401 4.1441307 4294967295
-293.19464 -200.58801 4.2675295 4294967295
-267.37674 -213.61482 -19.919422 4294967295
-239.56953 -198.4648 -19.888573 4294967295
-247.54182 -193.33412 -19.919422 4294967295
-275.83191 -208.64503 -20.073669 4294967295
-253.90739 -223.70981 4.1132813 4294967295
-222.76012 -207.32559 4.1132813 4294967295
-222.76012 -207.32559 -4.1132813 4294967295
-253.90739 -223.70981 -4.1132813 4294967295
267.37674 -213.61482 -19.919422 4294967295
275.83191 -208.64503 -20.073669 4294967295
247.54182 -193.33412 -19.919422 4294967295
239.56953 -198.4648 -19.888573 4294967295
293.19464 -200.58801 4.2675295 4294967295
263.05344 -183.79401 4.1441307 4294967295
263.05344 -183.79401 -4.1441307 4294967295
293.19464 -200.58801 -4.2675295 4294967295
267.37674 -213.61482 19.919422 4294967295
239.56953 -198.4648 19.888573 4294967295
247.54182 -193.33412 19.919422 4294967295
275.83191 -208.64503 20.073669 4294967295
253.90739 -223.70981 -4.1132813 4294967295
222.76012 -207.32559 -4.1132813 4294967295
222.76012 -207.32559 4.1132813 4294967295
253.90739 -223.70981 4.1132813 4294967295
-4.0466309 -257.3056 -371.0437 4294967295
-3.7800293 -262.10843 -361.21527 4294967295
3.7800293 -262.10843 -361.21527 4294967295
4.0466309 -257.3056 -371.0437 4294967295
4.0466309 -257.3056 371.0437 4294967295
3.7800293 -262.10843 361.21527 4294967295
-3.7800293 -262.10843 361.21527 4294967295
-4.0466309 -257.3056 371.0437 4294967295
-371.0437 -257.3056 4.0466309 4294967295
-361.21527 -262.10843 3.7800293 4294967295
-361.21527 -262.10843 -3.7800293 4294967295
-371.0437 -257.3056 -4.0466309 4294967295
371.0437 -257.3056 -4.0466309 4294967295
361.21527 -262.10843 -3.7800293 4294967295
361.21527 -262.10843 3.7800293 4294967295
371.0437 -257.3056 4.0466309 4294967295
345.27103 -253.8069 18.615074 4294967295
332.90594 -247.69763 19.836109 4294967295
341.86298 -241.92989 20.91394 4294967295
353.94104 -248.14726 19.836109 4294967295
331.4725 -262.65039 -3.7800293 4294967295
319.94824 -257.96219 -4.0466309 4294967295
319.94824 -257.96219 4.0466309 4294967295
331.4725 -262.65039 3.7800293 4294967295
353.94104 -248.14726 -19.836109 4294967295
341.86298 -241.92989 -20.91394 4294967295
332.90594 -247.69763 -19.836109 4294967295
345.27103 -253.8069 -18.615074 4294967295
-345.27103 -253.8069 -18.615074 4294967295
-332.90594 -247.69763 -19.836109 4294967295
-341.86298 -241.92989 -20.91394 4294967295
-353.94104 -248.14726 -19.836109 4294967295
-331.4725 -262.65039 3.7800293 4294967295
-319.94824 -257.96219 4.0466309 4294967295
-319.94824 -257.96219 -4.0466309 4294967295
-331.4725 -262.65039 -3.7800293 4294967295
-353.94104 -248.14726 19.836109 4294967295
-341.86298 -241.92989 20.91394 4294967295
-332.90594 -247.69763 19.836109 4294967295
-345.27103 -253.8069 18.615074 4294967295
-18.615074 -253.8069 345.27103 4294967295
-19.836109 -247.69763 332.90594 4294967295
-20.91394 -241.92989 341.86298 4294967295
-19.836109 -248.14726 353.94104 4294967295
3.7800293 -262.65039 331.4725 4294967295
4.0466309 -257.96219 319.94824 4294967295
-4.0466309 -257.96219 319.94824 4294967295
-3.7800293 -262.65039 331.4725 4294967295
19.836109 -248.14726 353.94104 4294967295
20.91394 -241.92989 341.86298 4294967295
19.836109 -247.69763 332.90594 4294967295
18.615074 -253.8069 345.27103 4294967295
18.615074 -253.8069 -345.27103 4294967295
19.836109 -247.69763 -332.90594 4294967295
20.91394 -241.92989 -341.86298 4294967295
19.836109 -248.14726 -353.94104 4294967295
-3.7800293 -262.65039 -331.4725 4294967295
-4.0466309 -257.96219 -319.94824 4294967295
4.0466309 -257.96219 -319.94824 4294967295
3.7800293 -262.65039 -331.4725 4294967295
-19.836109 -248.14726 -353.94104 4294967295
-20.91394 -241.92989 -341.86298 4294967295
-19.836109 -247.69763 -332.90594 4294967295
-18.615074 -253.8069 -345.27103 4294967295
-3.7133789 -195.84393 -384.19754 4294967295
-3.7133789 -199.76889 -391.69595 4294967295
3.7133789 -199.76889 -391.69595 4294967295
3.7133789 -195.84393 -384.19754 4294967295
3.7133789 -195.84393 384.19754 4294967295
3.7133789 -199.76889 391.69595 4294967295
-3.7133789 -199.76889 391.69595 4294967295
-3.7133789 -195.84393 384.19754 4294967295
-384.19754 -195.84393 3.7133789 4294967295
-391.69595 -199.76889 3.7133789 4294967295
-391.69595 -199.76889 -3.7133789 4294967295
-384.19754 -195.84393 -3.7133789 4294967295
384.19754 -195.84393 -3.7133789 4294967295
391.69595 -199.76889 -3.7133789 4294967295
391.69595 -199.76889 3.7133789 4294967295
384.19754 -195.84393 3.7133789 4294967295
361.34735 -202.80588 -3.810879 4294967295
361.34735 -202.80588 3.810879 4294967295
353.89374 -210.66388 4.2008791 4294967295
353.89374 -210.66388 -4.2008791 4294967295
383.78925 -214.49799 18.317528 4294967295
378.42941 -223.23262 19.605213 4294967295
369.3374 -218.50699 19.75946 4294967295
375.97211 -210.41289 18.348377 4294967295
398.5965 -222.29346 -3.7800293 4294967295
394.78555 -232.01802 -4.0466309 4294967295
394.78555 -232.01802 4.0466309 4294967295
398.5965 -222.29346 3.7800293 4294967295
375.97211 -210.41289 -18.348377 4294967295
369.3374 -218.50699 -19.75946 4294967295
378.42941 -223.23262 -19.605213 4294967295
383.78925 -214.49799 -18.317528 4294967295
-361.34735 -202.80588 3.810879 4294967295
-361.34735 -202.80588 -3.810879 4294967295
-353.89374 -210.66388 -4.2008791 4294967295
-353.89374 -210.66388 4.2008791 4294967295
-383.78925 -214.49799 -18.317528 4294967295
-378.42941 -223.23262 -19.605213 4294967295
-369.3374 -218.50699 -19.75946 4294967295
-375.97211 -210.41289 -18.348377 4294967295
-398.5965 -222.29346 3.7800293 4294967295
-394.78555 -232.01802 4.0466309 4294967295
-394.78555 -232.01802 -4.0466309 4294967295
-398.5965 -222.29346 -3.7800293 4294967295
-375.97211 -210.41289 18.348377 4294967295
-369.3374 -218.50699 19.75946 4294967295
-378.42941 -223.23262 19.605213 4294967295
-383.78925 -214.49799 18.317528 4294967295
3.810879 -202.80588 361.34735 4294967295
-3.810879 -202.80588 361.34735 4294967295
-4.2008791 -210.66388 353.89374 4294967295
4.2008791 -210.66388 353.89374 4294967295
-18.317528 -214.49799 383.78925 4294967295
-19.605213 -223.23262 378.42941 4294967295
-19.75946 -218.50699 369.3374 4294967295
-18.348377 -210.41289 375.97211 4294967295
3.7800293 -222.29346 398.5965 4294967295
4.0466309 -232.01802 394.78555 4294967295
-4.0466309 -232.01802 394.78555 4294967295
-3.7800293 -222.29346 398.5965 4294967295
18.348377 -210.41289 375.97211 4294967295
19.75946 -218.50699 369.3374 4294967295
19.605213 -223.23262 378.42941 4294967295
18.317528 -214.49799 383.78925 4294967295
-3.810879 -202.80588 -361.34735 4294967295
3.810879 -202.80588 -361.34735 4294967295
4.2008791 -210.66388 -353.89374 4294967295
-4.2008791 -210.66388 -353.89374 4294967295
18.317528 -214.49799 -383.78925 4294967295
19.605213 -223.23262 -378.42941 4294967295
19.75946 -218.50699 -369.3374 4294967295
18.348377 -210.41289 -375.97211 4294967295
-3.7800293 -222.29346 -398.5965 4294967295
-4.0466309 -232.01802 -394.78555 4294967295
4.0466309 -232.01802 -394.78555 4294967295
3.7800293 -222.29346 -398.5965 4294967295
-18.348377 -210.41289 -375.97211 4294967295
-19.75946 -218.50699 -369.3374 4294967295
-19.605213 -223.23262 -378.42941 4294967295
-18.317528 -214.49799 -383.78925 4294967295
81.632484 274.32791 394.42139 4294967295
88.631187 272.76541 428.35693 4294967295
-88.631187 272.76541 428.35693 4294967295
-81.632484 274.32791 394.42139 4294967295
394.42139 274.32791 -81.632484 4294967295
428.35693 272.76541 -88.631187 4294967295
428.35693 272.76541 88.631187 4294967295
394.42139 274.32791 81.632484 4294967295
-81.632484 274.32791 -394.42139 4294967295
-88.631187 272.76541 -428.35693 4294967295
88.631187 272.76541 -428.35693 4294967295
81.632484 274.32791 -394.42139 4294967295
-394.42139 274.32791 -81.632484 4294967295
-394.42139 274.32791 81.632484 4294967295
-428.35693 272.76541 88.631187 4294967295
-428.35693 272.76541 -88.631187 4294967295
-77.929688 274.71854 -77.929688 4294967295
77.929688 274.71854 -77.929688 4294967295
77.929688 274.71854 77.929688 4294967295
-77.929688 274.71854 77.929688 4294967295
-448.16895 262.99979 92.724609 4294967295
-448.16895 262.99979 -92.724609 4294967295
-442.50488 269.24979 -91.552734 4294967295
-442.50488 269.24979 91.552734 4294967295
91.552734 269.24979 442.50488 4294967295
92.724609 262.99979 448.16895 4294967295
-92.724609 262.99979 448.16895 4294967295
-91.552734 269.24979 442.50488 4294967295
442.50488 269.24979 -91.552734 4294967295
448.16895 262.99979 -92.724609 4294967295
448.16895 262.99979 92.724609 4294967295
442.50488 269.24979 91.552734 4294967295
92.724609 262.99979 -448.16895 4294967295
91.552734 269.24979 -442.50488 4294967295
-91.552734 269.24979 -442.50488 4294967295
-92.724609 262.99979 -448.16895 4294967295
93.75 230.96854 -453.125 4294967295
-93.75 230.96854 -453.125 4294967295
-83.789063 224.71854 -404.98047 4294967295
83.789063 224.71854 -404.98047 4294967295
453.125 230.96854 -93.75 4294967295
404.98047 224.71854 -83.789063 4294967295
404.98047 224.71854 83.789063 4294967295
453.125 230.96854 93.75 4294967295
93.75 230.96854 453.125 4294967295
83.789063 224.71854 404.98047 4294967295
-83.789063 224.71854 404.98047 4294967295
-93.75 230.96854 453.125 4294967295
-453.125 230.96854 93.75 4294967295
-404.98047 224.71854 83.789063 4294967295
-404.98047 224.71854 -83.789063 4294967295
-453.125 230.96854 -93.75 4294967295
-389.09912 254.01541 264.5874 4294967295
-264.5874 254.01541 389.09912 4294967295
-265.41748 243.07791 390.31982 4294967295
-390.31982 243.07791 265.41748 4294967295
-264.5874 254.01541 -389.09912 4294967295
-389.09912 254.01541 -264.5874 4294967295
-390.31982 243.07791 -265.41748 4294967295
-265.41748 243.07791 -390.31982 4294967295
264.5874 254.01541 389.09912 4294967295
389.09912 254.01541 264.5874 4294967295
390.31982 243.07791 265.41748 4294967295
265.41748 243.07791 390.31982 4294967295
389.09912 254.01541 -264.5874 4294967295
264.5874 254.01541 -389.09912 4294967295
265.41748 243.07791 -390.31982 4294967295
390.31982 243.07791 -265.41748 4294967295
196.07544 216.90604 133.3313 4294967295
133.3313 216.90604 196.07544 4294967295
182.72095 223.15604 268.70728 4294967295
268.70728 223.15604 182.72095 4294967295
110.09521 177.84354 22.77832 4294967295
158.23975 202.84354 32.739258 4294967295
158.23975 202.84354 -32.739258 4294967295
110.09521 177.84354 -22.77832 4294967295
133.3313 216.90604 -196.07544 4294967295
196.07544 216.90604 -133.3313 4294967295
268.70728 223.15604 -182.72095 4294967295
182.72095 223.15604 -268.70728 4294967295
-133.3313 216.90604 196.07544 4294967295
-196.07544 216.90604 133.3313 4294967295
-268.70728 223.15604 182.72095 4294967295
-182.72095 223.15604 268.70728 4294967295
-22.77832 177.84354 110.09521 4294967295
-32.739258 202.84354 158.23975 4294967295
32.739258 202.84354 158.23975 4294967295
22.77832 177.84354 110.09521 4294967295
-196.07544 216.90604 -133.3313 4294967295
-133.3313 216.90604 -196.07544 4294967295
-182.72095 223.15604 -268.70728 4294967295
-268.70728 223.15604 -182.72095 4294967295
-110.09521 177.84354 -22.77832 4294967295
-158.23975 202.84354 -32.739258 4294967295
-158.23975 202.84354 32.739258 4294967295
-110.09521 177.84354 22.77832 4294967295
-32.739258 202.84354 -158.23975 4294967295
-22.77832 177.84354 -110.09521 4294967295
22.77832 177.84354 -110.09521 4294967295
32.739258 202.84354 -158.23975 4294967295
61.187744 98.156044 41.607666 4294967295
41.607666 98.156044 61.187744 4294967295
48.66333 141.90604 71.563721 4294967295
71.563721 141.90604 48.66333 4294967295
67.96875 49.718544 -14.0625 4294967295
64.570313 24.718542 -13.359375 4294967295
64.570313 24.718542 13.359375 4294967295
67.96875 49.718544 14.0625 4294967295
41.607666 98.156044 -61.187744 4294967295
61.187744 98.156044 -41.607666 4294967295
71.563721 141.90604 -48.66333 4294967295
48.66333 141.90604 -71.563721 4294967295
-41.607666 98.156044 61.187744 4294967295
-61.187744 98.156044 41.607666 4294967295
-71.563721 141.90604 48.66333 4294967295
-48.66333 141.90604 71.563721 4294967295
-14.0625 49.718544 67.96875 4294967295
14.0625 49.718544 67.96875 4294967295
13.359375 24.718542 64.570313 4294967295
-13.359375 24.718542 64.570313 4294967295
-61.187744 98.156044 -41.607666 4294967295
-41.607666 98.156044 -61.187744 4294967295
-48.66333 141.90604 -71.563721 4294967295
-71.563721 141.90604 -48.66333 4294967295
-64.570313 24.718542 -13.359375 4294967295
-67.96875 49.718544 -14.0625 4294967295
-67.96875 49.718544 14.0625 4294967295
-64.570313 24.718542 13.359375 4294967295
13.359375 24.718542 -64.570313 4294967295
14.0625 49.718544 -67.96875 4294967295
-14.0625 49.718544 -67.96875 4294967295
-13.359375 24.718542 -64.570313 4294967295
-45.547485 22.765417 -30.97229 4294967295
-30.97229 22.765417 -45.547485 4294967295
-34.085083 24.327917 -50.125122 4294967295
-50.125122 24.327917 -34.085083 4294967295
-48.533936 12.999792 -10.041504 4294967295
-49.383545 19.249792 -10.217285 4294967295
-49.383545 19.249792 10.217285 4294967295
-48.533936 12.999792 10.041504 4294967295
-30.97229 22.765417 45.547485 4294967295
-45.547485 22.765417 30.97229 4294967295
-50.125122 24.327917 34.085083 4294967295
-34.085083 24.327917 50.125122 4294967295
30.97229 22.765417 -45.547485 4294967295
45.547485 22.765417 -30.97229 4294967295
50.125122 24.327917 -34.085083 4294967295
34.085083 24.327917 -50.125122 4294967295
10.041504 12.999792 -48.533936 4294967295
10.217285 19.249792 -49.383545 4294967295
-10.217285 19.249792 -49.383545 4294967295
-10.041504 12.999792 -48.533936 4294967295
45.547485 22.765417 30.97229 4294967295
30.97229 22.765417 45.547485 4294967295
34.085083 24.327917 50.125122 4294967295
50.125122 24.327917 34.085083 4294967295
48.533936 12.999792 10.041504 4294967295
49.383545 19.249792 10.217285 4294967295
49.383545 19.249792 -10.217285 4294967295
48.533936 12.999792 -10.041504 4294967295
10.217285 19.249792 49.383545 4294967295
10.041504 12.999792 48.533936 4294967295
-10.041504 12.999792 48.533936 4294967295
-10.217285 19.249792 49.383545 4294967295
-47.465515 -7.7849841 -32.817078 4294967295
-32.817078 -7.7849841 -47.465515 4294967295
-29.722595 3.8428369 -43.55072 4294967295
-43.55072 3.8428369 -29.722595 4294967295
-58.815308 -18.364304 12.751831 4294967295
-62.946167 -28.241257 12.211304 4294967295
-62.946167 -28.241257 -12.211304 4294967295
-58.815308 -18.364304 -12.751831 4294967295
-32.817078 -7.7849841 47.465515 4294967295
-47.465515 -7.7849841 32.817078 4294967295
-43.55072 3.8428369 29.722595 4294967295
-29.722595 3.8428369 43.55072 4294967295
32.817078 -7.7849841 -47.465515 4294967295
47.465515 -7.7849841 -32.817078 4294967295
43.55072 3.8428369 -29.722595 4294967295
29.722595 3.8428369 -43.55072 4294967295
12.211304 -28.241257 -62.946167 4294967295
12.751831 -18.364304 -58.815308 4294967295
-12.751831 -18.364304 -58.815308 4294967295
-12.211304 -28.241257 -62.946167 4294967295
47.465515 -7.7849841 32.817078 4294967295
32.817078 -7.7849841 47.465515 4294967295
29.722595 3.8428369 43.55072 4294967295
43.55072 3.8428369 29.722595 4294967295
58.815308 -18.364304 12.751831 4294967295
58.815308 -18.364304 -12.751831 4294967295
62.946167 -28.241257 -12.211304 4294967295
62.946167 -28.241257 12.211304 4294967295
-12.211304 -28.241257 62.946167 4294967295
-12.751831 -18.364304 58.815308 4294967295
12.751831 -18.364304 58.815308 4294967295
12.211304 -28.241257 62.946167 4294967295
53.79895 -114.23383 -60.542358 4294967295
60.542358 -114.23383 -53.79895 4294967295
61.042015 -84.67688 -54.298607 4294967295
54.298607 -84.67688 -61.042015 4294967295
-11.843481 -166.6172 -53.517479 4294967295
-12.911352 -170.0508 -36.642479 4294967295
12.911352 -170.0508 -36.642479 4294967295
11.843481 -166.6172 -53.517479 4294967295
-60.542358 -114.23383 -53.79895 4294967295
-53.79895 -114.23383 -60.542358 4294967295
-54.298607 -84.67688 -61.042015 4294967295
-61.042015 -84.67688 -54.298607 4294967295
60.542358 -114.23383 53.79895 4294967295
53.79895 -114.23383 60.542358 4294967295
54.298607 -84.67688 61.042015 4294967295
61.042015 -84.67688 54.298607 4294967295
36.642479 -170.0508 12.911352 4294967295
53.517479 -166.6172 11.843481 4294967295
53.517479 -166.6172 -11.843481 4294967295
36.642479 -170.0508 -12.911352 4294967295
-53.79895 -114.23383 60.542358 4294967295
-60.542358 -114.23383 53.79895 4294967295
-61.042015 -84.67688 54.298607 4294967295
-54.298607 -84.67688 61.042015 4294967295
-12.911352 -170.0508 36.642479 4294967295
-11.843481 -166.6172 53.517479 4294967295
11.843481 -166.6172 53.517479 4294967295
12.911352 -170.0508 36.642479 4294967295
-36.642479 -170.0508 -12.911352 4294967295
-53.517479 -166.6172 -11.843481 4294967295
-53.517479 -166.6172 11.843481 4294967295
-36.642479 -170.0508 12.911352 4294967295
31.896799 -135.46584 -69.30616 4294967295
21.784983 -151.42482 -68.359383 4294967295
27.512924 -154.86349 -63.44548 4294967295
39.760483 -137.85764 -64.473312 4294967295
24.397064 -115.11153 -85.110168 4294967295
29.558441 -113.61935 -75.718079 4294967295
29.558441 -90.99044 -76.576843 4294967295
24.397064 -94.123253 -86.950378 4294967295
21.909897 -49.73431 -69.525711 4294967295
32.021713 -66.152283 -70.252762 4294967295
40.385056 -61.477367 -65.525894 4294967295
28.137497 -43.910961 -65.596695 4294967295
-21.784983 -151.42482 -68.359383 4294967295
-31.896799 -135.46584 -69.30616 4294967295
-39.760483 -137.85764 -64.473312 4294967295
-27.512924 -154.86349 -63.44548 4294967295
-4.9141846 -154.11154 -77.238464 4294967295
-5.9820557 -155.76389 -69.727478 4294967295
5.9820557 -155.76389 -69.727478 4294967295
4.9141846 -154.11154 -77.238464 4294967295
-32.021713 -66.152283 -70.252762 4294967295
-21.909897 -49.73431 -69.525711 4294967295
-28.137497 -43.910961 -65.596695 4294967295
-40.385056 -61.477367 -65.525894 4294967295
-24.397064 -94.123253 -86.950378 4294967295
-29.558441 -90.99044 -76.576843 4294967295
-29.558441 -113.61935 -75.718079 4294967295
-24.397064 -115.11153 -85.110168 4294967295
-5.9820557 -46.099815 -70.831604 4294967295
-4.9141846 -52.377159 -83.086243 4294967295
4.9141846 -52.377159 -83.086243 4294967295
5.9820557 -46.099815 -70.831604 4294967295
-31.896799 -135.46584 69.30616 4294967295
-21.784983 -151.42482 68.359383 4294967295
-27.512924 -154.86349 63.44548 4294967295
-39.760483 -137.85764 64.473312 4294967295
-24.397064 -115.11153 85.110168 4294967295
-29.558441 -113.61935 75.718079 4294967295
-29.558441 -90.99044 76.576843 4294967295
-24.397064 -94.123253 86.950378 4294967295
-21.909897 -49.73431 69.525711 4294967295
-32.021713 -66.152283 70.252762 4294967295
-40.385056 -61.477367 65.525894 4294967295
-28.137497 -43.910961 65.596695 4294967295
21.784983 -151.42482 68.359383 4294967295
31.896799 -135.46584 69.30616 4294967295
39.760483 -137.85764 64.473312 4294967295
27.512924 -154.86349 63.44548 4294967295
4.9141846 -154.11154 77.238464 4294967295
5.9820557 -155.76389 69.727478 4294967295
-5.9820557 -155.76389 69.727478 4294967295
-4.9141846 -154.11154 77.238464 4294967295
32.021713 -66.152283 70.252762 4294967295
21.909897 -49.73431 69.525711 4294967295
28.137497 -43.910961 65.596695 4294967295
40.385056 -61.477367 65.525894 4294967295
24.397064 -94.123253 86.950378 4294967295
29.558441 -90.99044 76.576843 4294967295
29.558441 -113.61935 75.718079 4294967295
24.397064 -115.11153 85.110168 4294967295
5.9820557 -46.099815 70.831604 4294967295
4.9141846 -52.377159 83.086243 4294967295
-4.9141846 -52.377159 83.086243 4294967295
-5.9820557 -46.099815 70.831604 4294967295
-69.30616 -135.46584 -31.896799 4294967295
-68.359383 -151.42482 -21.784983 4294967295
-63.44548 -154.86349 -27.512924 4294967295
-64.473312 -137.85764 -39.760483 4294967295
-85.110168 -115.11153 -24.397064 4294967295
-75.718079 -113.61935 -29.558441 4294967295
-76.576843 -90.99044 -29.558441 4294967295
-86.950378 -94.123253 -24.397064 4294967295
-69.525711 -49.73431 -21.909897 4294967295
-70.252762 -66.152283 -32.021713 4294967295
-65.525894 -61.477367 -40.385056 4294967295
-65.596695 -43.910961 -28.137497 4294967295
-68.359383 -151.42482 21.784983 4294967295
-69.30616 -135.46584 31.896799 4294967295
-64.473312 -137.85764 39.760483 4294967295
-63.44548 -154.86349 27.512924 4294967295
-77.238464 -154.11154 4.9141846 4294967295
-69.727478 -155.76389 5.9820557 4294967295
-69.727478 -155.76389 -5.9820557 4294967295
-77.238464 -154.11154 -4.9141846 4294967295
-70.252762 -66.152283 32.021713 4294967295
-69.525711 -49.73431 21.909897 4294967295
-65.596695 -43.910961 28.137497 4294967295
-65.525894 -61.477367 40.385056 4294967295
-86.950378 -94.123253 24.397064 4294967295
-76.576843 -90.99044 29.558441 4294967295
-75.718079 -113.61935 29.558441 4294967295
-85.110168 -115.11153 24.397064 4294967295
-70.831604 -46.099815 5.9820557 4294967295
-83.086243 -52.377159 4.9141846 4294967295
-83.086243 -52.377159 -4.9141846 4294967295
-70.831604 -46.099815 -5.9820557 4294967295
69.30616 -135.46584 31.896799 4294967295
68.359383 -151.42482 21.784983 4294967295
63.44548 -154.86349 27.512924 4294967295
64.473312 -137.85764 39.760483 4294967295
85.110168 -115.11153 24.397064 4294967295
75.718079 -113.61935 29.558441 4294967295
76.576843 -90.99044 29.558441 4294967295
86.950378 -94.123253 24.397064 4294967295
69.525711 -49.73431 21.909897 4294967295
70.252762 -66.152283 32.021713 4294967295
65.525894 -61.477367 40.385056 4294967295
65.596695 -43.910961 28.137497 4294967295
68.359383 -151.42482 -21.784983 4294967295
69.30616 -135.46584 -31.896799 4294967295
64.473312 -137.85764 -39.760483 4294967295
63.44548 -154.86349 -27.512924 4294967295
77.238464 -154.11154 -4.9141846 4294967295
69.727478 -155.76389 -5.9820557 4294967295
69.727478 -155.76389 5.9820557 4294967295
77.238464 -154.11154 4.9141846 4294967295
70.252762 -66.152283 -32.021713 4294967295
69.525711 -49.73431 -21.909897 4294967295
65.596695 -43.910961 -28.137497 4294967295
65.525894 -61.477367 -40.385056 4294967295
86.950378 -94.123253 -24.397064 4294967295
76.576843 -90.99044 -29.558441 4294967295
75.718079 -113.61935 -29.558441 4294967295
85.110168 -115.11153 -24.397064 4294967295
70.831604 -46.099815 -5.9820557 4294967295
83.086243 -52.377159 -4.9141846 4294967295
83.086243 -52.377159 4.9141846 4294967295
70.831604 -46.099815 5.9820557 4294967295
131.39821 -160.88055 -4.1132813 4294967295
118.34992 -157.44307 -4.1132813 4294967295
118.34992 -157.44307 4.1132813 4294967295
131.39821 -160.88055 4.1132813 4294967295
151.79387 -121.96699 -19.880859 4294967295
135.88304 -112.24043 -19.880859 4294967295
129.87169 -127.73848 -19.880859 4294967295
144.80107 -135.30878 -19.880859 4294967295
165.19673 -96.39521 4.1132813 4294967295
147.4048 -82.535843 4.1132813 4294967295
147.4048 -82.535843 -4.1132813 4294967295
165.19673 -96.39521 -4.1132813 4294967295
135.88304 -112.24043 19.880859 4294967295
151.79387 -121.96699 19.880859 4294967295
144.80107 -135.30878 19.880859 4294967295
129.87169 -127.73848 19.880859 4294967295
-131.39821 -160.88055 4.1132813 4294967295
-118.34992 -157.44307 4.1132813 4294967295
-118.34992 -157.44307 -4.1132813 4294967295
-131.39821 -160.88055 -4.1132813 4294967295
-151.79387 -121.96699 19.880859 4294967295
-135.88304 -112.24043 19.880859 4294967295
-129.87169 -127.73848 19.880859 4294967295
-144.80107 -135.30878 19.880859 4294967295
-165.19673 -96.39521 -4.1132813 4294967295
-147.4048 -82.535843 -4.1132813 4294967295
-147.4048 -82.535843 4.1132813 4294967295
-165.19673 -96.39521 4.1132813 4294967295
-135.88304 -112.24043 -19.880859 4294967295
-151.79387 -121.96699 -19.880859 4294967295
-144.80107 -135.30878 -19.880859 4294967295
-129.87169 -127.73848 -19.880859 4294967295
4.1132813 -160.88055 131.39821 4294967295
4.1132813 -157.44307 118.34992 4294967295
-4.1132813 -157.44307 118.34992 4294967295
-4.1132813 -160.88055 131.39821 4294967295
19.880859 -121.96699 151.79387 4294967295
19.880859 -112.24043 135.88304 4294967295
19.880859 -127.73848 129.87169 4294967295
19.880859 -135.30878 144.80107 4294967295
-4.1132813 -96.39521 165.19673 4294967295
-4.1132813 -82.535843 147.4048 4294967295
4.1132813 -82.535843 147.4048 4294967295
4.1132813 -96.39521 165.19673 4294967295
-19.880859 -112.24043 135.88304 4294967295
-19.880859 -121.96699 151.79387 4294967295
-19.880859 -135.30878 144.80107 4294967295
-19.880859 -127.73848 129.87169 4294967295
-4.1132813 -160.88055 -131.39821 4294967295
-4.1132813 -157.44307 -118.34992 4294967295
4.1132813 -157.44307 -118.34992 4294967295
4.1132813 -160.88055 -131.39821 4294967295
-19.880859 -121.96699 -151.79387 4294967295
-19.880859 -112.24043 -135.88304 4294967295
-19.880859 -127.73848 -129.87169 4294967295
-19.880859 -135.30878 -144.80107 4294967295
4.1132813 -96.39521 -165.19673 4294967295
4.1132813 -82.535843 -147.4048 4294967295
-4.1132813 -82.535843 -147.4048 4294967295
-4.1132813 -96.39521 -165.19673 4294967295
19.880859 -112.24043 -135.88304 4294967295
19.880859 -121.96699 -151.79387 4294967295
19.880859 -135.30878 -144.80107 4294967295
19.880859 -127.73848 -129.87169 4294967295
17.416763 -137.97823 -109.54108 4294967295
11.843399 -149.58858 -106.31964 4294967295
12.599808 -148.15891 -92.610489 4294967295
18.529129 -135.46652 -95.304581 4294967295
11.843399 -76.812706 -125.64185 4294967295
17.416763 -88.495323 -122.72925 4294967295
18.529129 -80.829308 -104.23982 4294967295
12.599808 -67.775597 -105.38972 4294967295
-11.843399 -149.58858 -106.31964 4294967295
-17.416763 -137.97823 -109.54108 4294967295
-18.529129 -135.46652 -95.304581 4294967295
-12.599808 -148.15891 -92.610489 4294967295
-17.416763 -88.495323 -122.72925 4294967295
-11.843399 -76.812706 -125.64185 4294967295
-12.599808 -67.775597 -105.38972 4294967295
-18.529129 -80.829308 -104.23982 4294967295
-17.416763 -137.97823 109.54108 4294967295
-11.843399 -149.58858 106.31964 4294967295
-12.599808 -148.15891 92.610489 4294967295
-18.529129 -135.46652 95.304581 4294967295
-11.843399 -76.812706 125.64185 4294967295
-17.416763 -88.495323 122.72925 4294967295
-18.529129 -80.829308 104.23982 4294967295
-12.599808 -67.775597 105.38972 4294967295
11.843399 -149.58858 106.31964 4294967295
17.416763 -137.97823 109.54108 4294967295
18.529129 -135.46652 95.304581 4294967295
12.599808 -148.15891 92.610489 4294967295
17.416763 -88.495323 122.72925 4294967295
11.843399 -76.812706 125.64185 4294967295
12.599808 -67.775597 105.38972 4294967295
18.529129 -80.829308 104.23982 4294967295
-109.54108 -137.97823 -17.416763 4294967295
-106.31964 -149.58858 -11.843399 4294967295
-92.610489 -148.15891 -12.599808 4294967295
-95.304581 -135.46652 -18.529129 4294967295
-125.64185 -76.812706 -11.843399 4294967295
-122.72925 -88.495323 -17.416763 4294967295
-104.23982 -80.829308 -18.529129 4294967295
-105.38972 -67.775597 -12.599808 4294967295
-106.31964 -149.58858 11.843399 4294967295
-109.54108 -137.97823 17.416763 4294967295
-95.304581 -135.46652 18.529129 4294967295
-92.610489 -148.15891 12.599808 4294967295
-122.72925 -88.495323 17.416763 4294967295
-125.64185 -76.812706 11.843399 4294967295
-105.38972 -67.775597 12.599808 4294967295
-104.23982 -80.829308 18.529129 4294967295
109.54108 -137.97823 17.416763 4294967295
106.31964 -149.58858 11.843399 4294967295
92.610489 -148.15891 12.599808 4294967295
95.304581 -135.46652 18.529129 4294967295
125.64185 -76.812706 11.843399 4294967295
122.72925 -88.495323 17.416763 4294967295
104.23982 -80.829308 18.529129 4294967295
105.38972 -67.775597 12.599808 4294967295
106.31964 -149.58858 -11.843399 4294967295
109.54108 -137.97823 -17.416763 4294967295
95.304581 -135.46652 -18.529129 4294967295
92.610489 -148.15891 -12.599808 4294967295
122.72925 -88.495323 -17.416763 4294967295
125.64185 -76.812706 -11.843399 4294967295
105.38972 -67.775597 -12.599808 4294967295
104.23982 -80.829308 -18.529129 4294967295
-19.880859 -177.32088 -221.08878 4294967295
-19.880859 -161.64514 -198.93961 4294967295
-19.880859 -168.74963 -191.08804 4294967295
-19.880859 -183.13631 -213.23721 4294967295
4.1132813 -166.17464 -236.1376 4294967295
4.1132813 -148.0282 -213.98843 4294967295
-4.1132813 -148.0282 -213.98843 4294967295
-4.1132813 -166.17464 -236.1376 4294967295
19.880859 -183.13631 -213.23721 4294967295
19.880859 -168.74963 -191.08804 4294967295
19.880859 -161.64514 -198.93961 4294967295
19.880859 -177.32088 -221.08878 4294967295
4.1132813 -178.96497 -169.46367 4294967295
4.1132813 -190.88095 -191.61285 4294967295
-4.1132813 -190.88095 -191.61285 4294967295
-4.1132813 -178.96497 -169.46367 4294967295
19.880859 -177.32088 221.08878 4294967295
19.880859 -161.64514 198.93961 4294967295
19.880859 -168.74963 191.08804 4294967295
19.880859 -183.13631 213.23721 4294967295
-4.1132813 -166.17464 236.1376 4294967295
-4.1132813 -148.0282 213.98843 4294967295
4.1132813 -148.0282 213.98843 4294967295
4.1132813 -166.17464 236.1376 4294967295
-19.880859 -183.13631 213.23721 4294967295
-19.880859 -168.74963 191.08804 4294967295
-19.880859 -161.64514 198.93961 4294967295
-19.880859 -177.32088 221.08878 4294967295
-4.1132813 -178.96497 169.46367 4294967295
-4.1132813 -190.88095 191.61285 4294967295
4.1132813 -190.88095 191.61285 4294967295
4.1132813 -178.96497 169.46367 4294967295
-221.08878 -177.32088 19.880859 4294967295
-198.93961 -161.64514 19.880859 4294967295
-191.08804 -168.74963 19.880859 4294967295
-213.23721 -183.13631 19.880859 4294967295
-236.1376 -166.17464 -4.1132813 4294967295
-213.98843 -148.0282 -4.1132813 4294967295
-213.98843 -148.0282 4.1132813 4294967295
-236.1376 -166.17464 4.1132813 4294967295
-213.23721 -183.13631 -19.880859 4294967295
-191.08804 -168.74963 -19.880859 4294967295
-198.93961 -161.64514 -19.880859 4294967295
-221.08878 -177.32088 -19.880859 4294967295
-169.46367 -178.96497 -4.1132813 4294967295
-191.61285 -190.88095 -4.1132813 4294967295
-191.61285 -190.88095 4.1132813 4294967295
-169.46367 -178.96497 4.1132813 4294967295
221.08878 -177.32088 -19.880859 4294967295
198.93961 -161.64514 -19.880859 4294967295
191.08804 -168.74963 -19.880859 4294967295
213.23721 -183.13631 -19.880859 4294967295
236.1376 -166.17464 4.1132813 4294967295
213.98843 -148.0282 4.1132813 4294967295
213.98843 -148.0282 -4.1132813 4294967295
236.1376 -166.17464 -4.1132813 4294967295
213.23721 -183.13631 19.880859 4294967295
191.08804 -168.74963 19.880859 4294967295
198.93961 -161.64514 19.880859 4294967295
221.08878 -177.32088 19.880859 4294967295
169.46367 -178.96497 4.1132813 4294967295
191.61285 -190.88095 4.1132813 4294967295
191.61285 -190.88095 -4.1132813 4294967295
169.46367 -178.96497 -4.1132813 4294967295
160.12704 -169.49033 -11.654297 4294967295
166.18573 -163.98911 -17.138672 4294967295
151.77675 -154.87022 -17.138672 4294967295
146.57381 -162.16734 -11.654297 4294967295
166.18573 -163.98911 17.138672 4294967295
160.12704 -169.49033 11.654297 4294967295
146.57381 -162.16734 11.654297 4294967295
151.77675 -154.87022 17.138672 4294967295
188.47433 -138.79739 -17.138672 4294967295
193.66782 -132.84329 -11.654297 4294967295
178.22702 -116.10748 -11.654297 4294967295
173.19711 -123.49517 -17.138672 4294967295
193.66782 -132.84329 11.654297 4294967295
188.47433 -138.79739 17.138672 4294967295
173.19711 -123.49517 17.138672 4294967295
178.22702 -116.10748 11.654297 4294967295
-160.12704 -169.49033 11.654297 4294967295
-166.18573 -163.98911 17.138672 4294967295
-151.77675 -154.87022 17.138672 4294967295
-146.57381 -162.16734 11.654297 4294967295
-166.18573 -163.98911 -17.138672 4294967295
-160.12704 -169.49033 -11.654297 4294967295
-146.57381 -162.16734 -11.654297 4294967295
-151.77675 -154.87022 -17.138672 4294967295
-188.47433 -138.79739 17.138672 4294967295
-193.66782 -132.84329 11.654297 4294967295
-178.22702 -116.10748 11.654297 4294967295
-173.19711 -123.49517 17.138672 4294967295
-193.66782 -132.84329 -11.654297 4294967295
-188.47433 -138.79739 -17.138672 4294967295
-173.19711 -123.49517 -17.138672 4294967295
-178.22702 -116.10748 -11.654297 4294967295
11.654297 -169.49033 160.12704 4294967295
17.138672 -163.98911 166.18573 4294967295
17.138672 -154.87022 151.77675 4294967295
11.654297 -162.16734 146.57381 4294967295
-17.138672 -163.98911 166.18573 4294967295
-11.654297 -169.49033 160.12704 4294967295
-11.654297 -162.16734 146.57381 4294967295
-17.138672 -154.87022 151.77675 4294967295
17.138672 -138.79739 188.47433 4294967295
11.654297 -132.84329 193.66782 4294967295
11.654297 -116.10748 178.22702 4294967295
17.138672 -123.49517 173.19711 4294967295
-11.654297 -132.84329 193.66782 4294967295
-17.138672 -138.79739 188.47433 4294967295
-17.138672 -123.49517 173.19711 4294967295
-11.654297 -116.10748 178.22702 4294967295
-11.654297 -169.49033 -160.12704 4294967295
-17.138672 -163.98911 -166.18573 4294967295
-17.138672 -154.87022 -151.77675 4294967295
-11.654297 -162.16734 -146.57381 4294967295
17.138672 -163.98911 -166.18573 4294967295
11.654297 -169.49033 -160.12704 4294967295
11.654297 -162.16734 -146.57381 4294967295
17.138672 -154.87022 -151.77675 4294967295
-17.138672 -138.79739 -188.47433 4294967295
-11.654297 -132.84329 -193.66782 4294967295
-11.654297 -116.10748 -178.22702 4294967295
-17.138672 -123.49517 -173.19711 4294967295
11.654297 -132.84329 -193.66782 4294967295
17.138672 -138.79739 -188.47433 4294967295
17.138672 -123.49517 -173.19711 4294967295
11.654297 -116.10748 -178.22702 4294967295
345.69705 -219.78792 4.4834766 4294967295
325.17688 -216.65117 4.4834766 4294967295
325.17688 -216.65117 -4.4834766 4294967295
345.69705 -219.78792 -4.4834766 4294967295
316.03555 -238.99205 20.0651 4294967295
293.84109 -227.48486 19.979406 4294967295
302.94516 -222.3074 20.373596 4294967295
325.32077 -233.46851 20.802063 4294967295
307.20386 -251.62732 -4.1132813 4294967295
285.05469 -240.0336 -4.1132813 4294967295
285.05469 -240.0336 4.1132813 4294967295
307.20386 -251.62732 4.1132813 4294967295
293.84109 -227.48486 -19.979406 4294967295
316.03555 -238.99205 -20.0651 4294967295
325.32077 -233.46851 -20.802063 4294967295
302.94516 -222.3074 -20.373596 4294967295
-345.69705 -219.78792 -4.4834766 4294967295
-325.17688 -216.65117 -4.4834766 4294967295
-325.17688 -216.65117 4.4834766 4294967295
-345.69705 -219.78792 4.4834766 4294967295
-316.03555 -238.99205 -20.0651 4294967295
-293.84109 -227.48486 -19.979406 4294967295
-302.94516 -222.3074 -20.373596 4294967295
-325.32077 -233.46851 -20.802063 4294967295
-307.20386 -251.62732 4.1132813 4294967295
-285.05469 -240.0336 4.1132813 4294967295
-285.05469 -240.0336 -4.1132813 4294967295
-307.20386 -251.62732 -4.1132813 4294967295
-293.84109 -227.48486 19.979406 4294967295
-316.03555 -238.99205 20.0651 4294967295
-325.32077 -233.46851 20.802063 4294967295
-302.94516 -222.3074 20.373596 4294967295
-4.4834766 -219.78792 345.69705 4294967295
-4.4834766 -216.65117 325.17688 4294967295
4.4834766 -216.65117 325.17688 4294967295
4.4834766 -219.78792 345.69705 4294967295
-20.0651 -238.99205 316.03555 4294967295
-19.979406 -227.48486 293.84109 4294967295
-20.373596 -222.3074 302.94516 4294967295
-20.802063 -233.46851 325.32077 4294967295
4.1132813 -251.62732 307.20386 4294967295
4.1132813 -240.0336 285.05469 4294967295
-4.1132813 -240.0336 285.05469 4294967295
-4.1132813 -251.62732 307.20386 4294967295
19.979406 -227.48486 293.84109 4294967295
20.0651 -238.99205 316.03555 4294967295
20.802063 -233.46851 325.32077 4294967295
20.373596 -222.3074 302.94516 4294967295
4.4834766 -219.78792 -345.69705 4294967295
4.4834766 -216.65117 -325.17688 4294967295
-4.4834766 -216.65117 -325.17688 4294967295
-4.4834766 -219.78792 -345.69705 4294967295
20.0651 -238.99205 -316.03555 4294967295
19.979406 -227.48486 -293.84109 4294967295
20.373596 -222.3074 -302.94516 4294967295
20.802063 -233.46851 -325.32077 4294967295
-4.1132813 -251.62732 -307.20386 4294967295
-4.1132813 -240.0336 -285.05469 4294967295
4.1132813 -240.0336 -285.05469 4294967295
4.1132813 -251.62732 -307.20386 4294967295
-19.979406 -227.48486 -293.84109 4294967295
-20.0651 -238.99205 -316.03555 4294967295
-20.802063 -233.46851 -325.32077 4294967295
-20.373596 -222.3074 -302.94516 4294967295
-17.524292 -204.13539 -283.99997 4294967295
-12.039917 -201.40956 -290.09955 4294967295
-11.731421 -185.33722 -260.34067 4294967295
-17.215796 -188.6402 -254.93324 4294967295
-11.654297 -221.66757 -255.65939 4294967295
-17.138672 -218.12656 -260.2016 4294967295
-17.138672 -203.05045 -232.16905 4294967295
-11.654297 -206.0817 -226.24251 4294967295
12.039917 -201.40956 -290.09955 4294967295
17.524292 -204.13539 -283.99997 4294967295
17.215796 -188.6402 -254.93324 4294967295
11.731421 -185.33722 -260.34067 4294967295
17.138672 -218.12656 -260.2016 4294967295
11.654297 -221.66757 -255.65939 4294967295
11.654297 -206.0817 -226.24251 4294967295
17.138672 -203.05045 -232.16905 4294967295
17.524292 -204.13539 283.99997 4294967295
12.039917 -201.40956 290.09955 4294967295
11.731421 -185.33722 260.34067 4294967295
17.215796 -188.6402 254.93324 4294967295
11.654297 -221.66757 255.65939 4294967295
17.138672 -218.12656 260.2016 4294967295
17.138672 -203.05045 232.16905 4294967295
11.654297 -206.0817 226.24251 4294967295
-12.039917 -201.40956 290.09955 4294967295
-17.524292 -204.13539 283.99997 4294967295
-17.215796 -188.6402 254.93324 4294967295
-11.731421 -185.33722 260.34067 4294967295
-17.138672 -218.12656 260.2016 4294967295
-11.654297 -221.66757 255.65939 4294967295
-11.654297 -206.0817 226.24251 4294967295
-17.138672 -203.05045 232.16905 4294967295
-283.99997 -204.13539 17.524292 4294967295
-290.09955 -201.40956 12.039917 4294967295
-260.34067 -185.33722 11.731421 4294967295
-254.93324 -188.6402 17.215796 4294967295
-255.65939 -221.66757 11.654297 4294967295
-260.2016 -218.12656 17.138672 4294967295
-232.16905 -203.05045 17.138672 4294967295
-226.24251 -206.0817 11.654297 4294967295
-290.09955 -201.40956 -12.039917 4294967295
-283.99997 -204.13539 -17.524292 4294967295
-254.93324 -188.6402 -17.215796 4294967295
-260.34067 -185.33722 -11.731421 4294967295
-260.2016 -218.12656 -17.138672 4294967295
-255.65939 -221.66757 -11.654297 4294967295
-226.24251 -206.0817 -11.654297 4294967295
-232.16905 -203.05045 -17.138672 4294967295
283.99997 -204.13539 -17.524292 4294967295
290.09955 -201.40956 -12.039917 4294967295
260.34067 -185.33722 -11.731421 4294967295
254.93324 -188.6402 -17.215796 4294967295
255.65939 -221.66757 -11.654297 4294967295
260.2016 -218.12656 -17.138672 4294967295
232.16905 -203.05045 -17.138672 4294967295
226.24251 -206.0817 -11.654297 4294967295
290.09955 -201.40956 12.039917 4294967295
283.99997 -204.13539 17.524292 4294967295
254.93324 -188.6402 17.215796 4294967295
260.34067 -185.33722 11.731421 4294967295
260.2016 -218.12656 17.138672 4294967295
255.65939 -221.66757 11.654297 4294967295
226.24251 -206.0817 11.654297 4294967295
232.16905 -203.05045 17.138672 4294967295
10.71405 -260.52914 -358.92334 4294967295
15.769958 -257.81946 -353.78214 4294967295
16.864929 -252.56262 -362.51816 4294967295
11.466248 -255.60423 -368.15143 4294967295
-3.4467773 -264.81213 -351.50464 4294967295
-3.4467773 -265.01746 -341.7428 4294967295
3.4467773 -265.01746 -341.7428 4294967295
3.4467773 -264.81213 -351.50464 4294967295
-11.466248 -255.60423 -368.15143 4294967295
-16.864929 -252.56262 -362.51816 4294967295
-15.769958 -257.81946 -353.78214 4294967295
-10.71405 -260.52914 -358.92334 4294967295
-4.1132813 -242.41588 -389.15671 4294967295
-4.1132813 -251.07817 -381.0239 4294967295
4.1132813 -251.07817 -381.0239 4294967295
4.1132813 -242.41588 -389.15671 4294967295
-10.71405 -260.52914 358.92334 4294967295
-15.769958 -257.81946 353.78214 4294967295
-16.864929 -252.56262 362.51816 4294967295
-11.466248 -255.60423 368.15143 4294967295
3.4467773 -264.81213 351.50464 4294967295
3.4467773 -265.01746 341.7428 4294967295
-3.4467773 -265.01746 341.7428 4294967295
-3.4467773 -264.81213 351.50464 4294967295
11.466248 -255.60423 368.15143 4294967295
16.864929 -252.56262 362.51816 4294967295
15.769958 -257.81946 353.78214 4294967295
10.71405 -260.52914 358.92334 4294967295
4.1132813 -242.41588 389.15671 4294967295
4.1132813 -251.07817 381.0239 4294967295
-4.1132813 -251.07817 381.0239 4294967295
-4.1132813 -242.41588 389.15671 4294967295
-358.92334 -260.52914 -10.71405 4294967295
-353.78214 -257.81946 -15.769958 4294967295
-362.51816 -252.56262 -16.864929 4294967295
-368.15143 -255.60423 -11.466248 4294967295
-351.50464 -264.81213 3.4467773 4294967295
-341.7428 -265.01746 3.4467773 4294967295
-341.7428 -265.01746 -3.4467773 4294967295
-351.50464 -264.81213 -3.4467773 4294967295
-368.15143 -255.60423 11.466248 4294967295
-362.51816 -252.56262 16.864929 4294967295
-353.78214 -257.81946 15.769958 4294967295
-358.92334 -260.52914 10.71405 4294967295
-389.15671 -242.41588 4.1132813 4294967295
-381.0239 -251.07817 4.1132813 4294967295
-381.0239 -251.07817 -4.1132813 4294967295
-389.15671 -242.41588 -4.1132813 4294967295
358.92334 -260.52914 10.71405 4294967295
353.78214 -257.81946 15.769958 4294967295
362.51816 -252.56262 16.864929 4294967295
368.15143 -255.60423 11.466248 4294967295
351.50464 -264.81213 -3.4467773 4294967295
341.7428 -265.01746 -3.4467773 4294967295
341.7428 -265.01746 3.4467773 4294967295
351.50464 -264.81213 3.4467773 4294967295
368.15143 -255.60423 -11.466248 4294967295
362.51816 -252.56262 -16.864929 4294967295
353.78214 -257.81946 -15.769958 4294967295
358.92334 -260.52914 -10.71405 4294967295
389.15671 -242.41588 -4.1132813 4294967295
381.0239 -251.07817 -4.1132813 4294967295
381.0239 -251.07817 4.1132813 4294967295
389.15671 -242.41588 4.1132813 4294967295
371.3248 -232.39243 19.979406 4294967295
362.93243 -240.91885 20.0651 4294967295
351.48743 -234.99501 20.802063 4294967295
360.91803 -227.01204 20.373596 4294967295
362.93243 -240.91885 -20.0651 4294967295
371.3248 -232.39243 -19.979406 4294967295
360.91803 -227.01204 -20.373596 4294967295
351.48743 -234.99501 -20.802063 4294967295
337.99622 -257.94241 15.769958 4294967295
333.34384 -260.91385 10.71405 4294967295
321.37799 -255.82143 11.466248 4294967295
325.66537 -252.29237 16.864929 4294967295
333.34384 -260.91385 -10.71405 4294967295
337.99622 -257.94241 -15.769958 4294967295
325.66537 -252.29237 -16.864929 4294967295
321.37799 -255.82143 -11.466248 4294967295
-371.3248 -232.39243 -19.979406 4294967295
-362.93243 -240.91885 -20.0651 4294967295
-351.48743 -234.99501 -20.802063 4294967295
-360.91803 -227.01204 -20.373596 4294967295
-362.93243 -240.91885 20.0651 4294967295
-371.3248 -232.39243 19.979406 4294967295
-360.91803 -227.01204 20.373596 4294967295
-351.48743 -234.99501 20.802063 4294967295
-337.99622 -257.94241 -15.769958 4294967295
-333.34384 -260.91385 -10.71405 4294967295
-321.37799 -255.82143 -11.466248 4294967295
-325.66537 -252.29237 -16.864929 4294967295
-333.34384 -260.91385 10.71405 4294967295
-337.99622 -257.94241 15.769958 4294967295
-325.66537 -252.29237 16.864929 4294967295
-321.37799 -255.82143 11.466248 4294967295
